ply
format ascii 1.0
comment PCL generated
element vertex 557
property float x
property float y
property float z
property uchar red
property uchar green
property uchar blue
property float nx
property float ny
property float nz
property float curvature
element camera 0
property float view_px
property float view_py
property float view_pz
property float x_axisx
property float x_axisy
property float x_axisz
property float y_axisx
property float y_axisy
property float y_axisz
property float z_axisx
property float z_axisy
property float z_axisz
property float focal
property float scalex
property float scaley
property float centerx
property float centery
property int viewportx
property int viewporty
property float k1
property float k2
end_header
0.2128119 -0.19510771 -0.14959668 204 201 186 0.1285359 0.99085075 0.041150305 0
0.21430153 -0.19536752 -0.14956196 207 201 187 0.070844285 0.9939279 0.084192932 0
0.21511923 -0.19546193 -0.14884953 202 199 184 0.096865386 0.99520272 0.0137375 0
0.21713603 -0.1953681 -0.14947182 204 198 184 -0.076971479 0.99470776 0.068058006 0
0.21809039 -0.19532841 -0.14919105 205 199 185 -0.027839616 0.99792874 0.057992943 0
0.21942675 -0.19536479 -0.14950852 204 198 184 0.12601323 0.99096209 -0.045986559 0
0.22060268 -0.19553094 -0.1491133 203 197 183 0.16784558 0.98488259 -0.042827059 0
0.22157925 -0.19556777 -0.14939405 204 198 184 -0.026365982 0.99964792 -0.0029930058 0
0.22273028 -0.19558309 -0.14960858 204 198 184 0.044172712 0.9990232 0.0011948161 0
0.22484827 -0.19558831 -0.14981955 205 199 185 -0.12619856 0.97870141 0.16191821 0
0.22602449 -0.1956961 -0.14877541 204 198 184 0.095239423 0.99292767 -0.070880577 0
0.22676988 -0.19568281 -0.14911522 204 198 184 -0.036360413 0.9908033 0.13033295 0
0.22822791 -0.19554451 -0.14950547 204 198 184 -0.14780433 0.97956491 0.13640562 0
0.22947542 -0.19529183 -0.14940195 205 199 183 -0.12864073 0.99119562 0.031347908 0
0.23088992 -0.1954978 -0.14991917 205 199 183 0.37382242 0.91370595 -0.15936825 0
0.23182811 -0.19573741 -0.14922293 205 198 183 0.31238389 0.94230711 -0.12030625 0
0.2332205 -0.19578189 -0.14946301 204 197 181 -0.25335696 0.96737117 -0.0018285172 0
0.2344151 -0.19530602 -0.14923398 205 198 182 -0.24178359 0.93938005 0.2431169 0
0.23558921 -0.19518161 -0.14916053 204 197 181 0.068421938 0.89417011 0.44246837 0
0.2370346 -0.19524659 -0.14931633 206 199 183 0.094812967 0.94889539 0.30101177 0
0.23816252 -0.19550893 -0.14931962 205 199 182 0.23333885 0.94497001 0.22931345 0
0.23900087 -0.19564834 -0.14922386 205 198 180 -0.0046101357 0.98689044 0.16132568 0
0.14678447 -0.19382307 -0.1492094 228 221 205 0.018704293 0.99930531 0.032235418 0
0.14922683 -0.19386895 -0.14921579 227 220 204 0.040791243 0.99848193 0.037012406 0
0.15187636 -0.19403556 -0.14911583 226 220 205 0.049101397 0.99841064 0.027662981 0
0.15459663 -0.19408795 -0.14934589 227 221 207 -6.4210135e-06 0.99991113 -0.013334151 0
0.15604511 -0.19409446 -0.14970312 226 220 206 0.018175893 0.99981487 -0.0063111037 0
0.15689203 -0.19410904 -0.1495723 227 221 205 0.018175893 0.99981487 -0.0063111037 0
0.1584122 -0.19413367 -0.14887443 227 221 205 0.020274503 0.99976969 -0.007039791 0
0.15933909 -0.19415294 -0.14953251 226 220 204 -0.012437403 0.99636316 0.084295928 0
0.16300291 -0.19418578 -0.14923774 225 219 205 0.031861525 0.99769312 0.059944008 0
0.16386136 -0.19421493 -0.14884663 226 220 204 0.0015043829 0.998882 0.04724976 0
0.16543821 -0.19425748 -0.14889891 222 219 202 0.067165054 0.99749976 -0.021980358 0
0.16706887 -0.19433162 -0.14986552 221 218 201 0.019797543 0.99841094 0.052760549 0
0.16866638 -0.19439724 -0.14900203 218 215 198 0.0096899541 0.99865931 0.050850499 0
0.17151193 -0.19437651 -0.1492478 219 216 199 -0.013630079 0.99962747 0.023647927 0
0.17337692 -0.19443136 -0.14914496 217 211 195 0.063589126 0.99721205 0.039045587 0
0.17377554 -0.19446656 -0.14882094 216 213 196 0.050621718 0.99803221 0.037002087 0
0.17573316 -0.19454157 -0.14919257 218 215 198 0.019925026 0.99953055 0.023273673 0
0.17711046 -0.19449064 -0.14975896 214 211 194 -0.041752767 0.99889457 0.021593465 0
0.17919736 -0.19451585 -0.1493713 212 209 192 0.054852728 0.99825472 0.021880263 0
0.18053894 -0.19463056 -0.14973049 214 211 194 0.05207368 0.99863291 -0.0045465892 0
0.18175188 -0.19467944 -0.14937493 213 210 193 0.036482543 0.9991951 0.016678849 0
0.18309166 -0.19468983 -0.14996843 211 208 191 -1.2255501e-09 0.99866033 0.051744979 0
0.186693 -0.1946795 -0.14938927 210 207 192 -0.025830707 0.99729037 0.068882398 0
0.18884583 -0.19467695 -0.14939673 211 208 193 -0.0030761585 0.99986488 0.016149623 0
0.1902228 -0.19466265 -0.14970396 209 206 191 -0.012221981 0.99498689 0.099255703 0
0.19195579 -0.19473386 -0.14974986 208 205 190 0.027342619 0.99926585 -0.026835425 0
0.19330646 -0.19476432 -0.14934961 208 205 190 0.053091522 0.99540913 -0.079636887 0
0.19462779 -0.1948449 -0.14972338 207 204 187 0.082577661 0.9944008 -0.065939106 0
0.19530687 -0.19488239 -0.1494973 209 206 189 0.061908823 0.9972474 -0.040802743 0
0.19722551 -0.19497058 -0.14894266 208 205 188 0.052946161 0.99852431 -0.012076992 0
0.20066626 -0.1949611 -0.14989495 206 203 186 -0.041333646 0.99857736 0.033686716 0
0.20207688 -0.19498958 -0.14967485 208 205 188 -0.015885411 0.9998138 0.01095542 0
0.20434722 -0.1949237 -0.14952514 207 201 189 -0.055626981 0.99842614 -0.0071341773 0
0.20545924 -0.19491954 -0.14963996 207 201 189 -0.014995557 0.99983793 -0.0099664675 0
0.2068098 -0.19491594 -0.14925845 203 201 186 0.017950613 0.99974632 -0.013604744 0
0.20839672 -0.1949456 -0.1492947 208 205 190 0.039920621 0.99795592 -0.049904194 0
0.20919174 -0.19499934 -0.14970832 205 202 187 0.039908003 0.99764061 -0.055862453 0
0.21175434 -0.19499527 -0.14916772 206 200 186 0.12979174 0.9898901 -0.057198755 0
-0.015663635 -0.19323774 -0.14927021 179 175 166 -0.15638275 0.97319323 0.16863921 0
-0.014331915 -0.19310717 -0.14959948 179 177 164 -0.014578215 0.99382883 0.10996264 0
-0.013205986 -0.1932538 -0.14899798 181 177 165 0.098714128 0.99305558 0.064001471 0
-0.012286965 -0.19318682 -0.1494039 180 176 164 -0.084269129 0.98907286 0.12096971 0
-0.010368404 -0.19303505 -0.14886609 178 174 162 -0.079560094 0.99462283 0.066299759 0
-0.0083163939 -0.19328508 -0.14926398 177 173 163 0.10846175 0.96479535 -0.23959541 0
-0.0072648316 -0.19321261 -0.14912535 178 174 163 -0.22756527 0.94621444 -0.22998317 0
-0.0054747774 -0.19302399 -0.14958243 178 174 162 0.030889405 0.98630369 -0.16202176 0
-0.0039969222 -0.19317204 -0.1494939 178 174 163 0.12500812 0.98751915 -0.095806397 0
-0.0032534013 -0.19332135 -0.1498481 178 174 163 0.26909554 0.96306527 -0.0096339379 0
-0.0018420815 -0.19353619 -0.14886069 180 176 164 0.033396356 0.99944115 -0.0014760827 0
-0.00092363224 -0.19351286 -0.1490587 179 175 163 -0.021287983 0.99871725 -0.045941979 0
0.00062975771 -0.1934568 -0.14935991 178 174 162 -0.054817829 0.99623853 -0.067110792 0
0.0018459136 -0.19331817 -0.14927351 178 174 162 -0.093035117 0.99536228 -0.024462076 0
0.0032494459 -0.19325927 -0.14966866 180 176 164 0.069773324 0.99325871 -0.092567988 0
0.0044930531 -0.19333203 -0.14980967 179 175 163 0.051066995 0.99255055 -0.11061419 0
0.0055422145 -0.19334891 -0.14889374 181 177 165 0.089572884 0.99562418 -0.026628554 0
0.0071202419 -0.19352822 -0.1494077 182 178 166 0.13384913 0.9907921 -0.020383919 0
0.0084321853 -0.19363242 -0.14985333 181 177 165 0.034547184 0.98636019 -0.16093504 0
0.0094642239 -0.19350612 -0.1493642 183 179 167 -0.090174705 0.98468727 -0.14919622 0
0.010327145 -0.19340774 -0.14928462 186 182 170 -0.018296333 0.99954444 -0.024004532 0
0.011580387 -0.19340208 -0.14926764 183 179 167 -0.02164172 0.99467844 -0.10072955 0
0.01358456 -0.19345537 -0.14920822 185 181 169 0.1326974 0.98746556 0.085458651 0
0.014900186 -0.19347745 -0.14905965 186 183 168 0.014032995 0.9973768 0.071011163 0
0.015534186 -0.19347697 -0.1497584 185 182 167 0.060848862 0.99814701 -0.00014290823 0
0.016462233 -0.19356124 -0.14992981 186 182 170 0.10518686 0.99444431 0.0040273159 0
0.018299101 -0.1936601 -0.14954236 185 181 169 -0.010395653 0.99970442 -0.021977071 0
0.019210497 -0.19358589 -0.14901134 185 181 169 -0.074443467 0.98910236 -0.12702258 0
0.021093473 -0.19359705 -0.14951426 186 182 170 -0.019465921 0.99261045 -0.11977312 0
0.021810532 -0.19348791 -0.14875737 189 183 171 0.0018624538 0.98394954 -0.17843719 0
0.023131579 -0.19346571 -0.14938156 188 182 170 -0.070902713 0.99641919 -0.046060953 0
0.024389694 -0.19343494 -0.1493659 189 184 172 0.031875778 0.99852359 -0.043985035 0
0.02545304 -0.19348574 -0.14908113 192 186 174 0.059254318 0.99816692 -0.012321347 0
0.027189441 -0.19344966 -0.14891452 190 184 172 -0.041091722 0.99909383 -0.011091672 0
0.02796822 -0.19342399 -0.14957145 192 185 175 -0.042385429 0.9990418 -0.010911417 0
0.029263915 -0.19346198 -0.149948 189 183 171 0.039204296 0.9989801 -0.022402331 0
0.03065414 -0.19346604 -0.14933288 192 186 172 -0.061385643 0.99810743 0.0036468254 0
0.032881126 -0.19338761 -0.14999443 191 185 171 -0.041962944 0.9970333 0.064527318 0
0.034732964 -0.19338568 -0.1487852 192 186 172 -0.0050964984 0.99987233 0.015144839 0
0.036262359 -0.19337943 -0.14962839 191 185 171 0.02682562 0.99890178 0.038415633 0
0.037971735 -0.19341645 -0.14952265 190 184 170 0.017172357 0.99866581 0.048700944 0
0.038775384 -0.19342177 -0.14941934 192 186 172 -0.0023084781 0.99919188 0.040128097 0
0.040047094 -0.19340274 -0.1493094 192 186 172 -0.025089048 0.99786043 0.060374588 0
0.043089852 -0.19330783 -0.14993547 192 186 172 -0.024228431 0.99930674 0.028266585 0
0.045467697 -0.19324042 -0.14980991 193 185 172 0.026653027 0.99962258 0.0066633066 0
0.047982212 -0.19327614 -0.14876641 193 183 171 0.0044402694 0.99919134 -0.039962415 0
0.048962831 -0.19328839 -0.14917517 190 186 171 -0.0053590946 0.99991375 0.011990976 0
0.050905921 -0.19323957 -0.14922568 194 186 173 -0.032197423 0.99946404 -0.0059132064 0
0.052040841 -0.19322717 -0.14959897 193 185 172 -0.011121912 0.99992067 -0.0059159077 0
0.05300568 -0.19322966 -0.1493623 195 187 174 0.015994277 0.99977487 -0.013941495 0
0.055883992 -0.19327867 -0.14949419 193 185 172 0.019070424 0.99979091 -0.0073820874 0
0.056874007 -0.19329745 -0.14961566 196 188 174 0.020643476 0.99913746 -0.036029268 0
0.057956301 -0.19329517 -0.14887576 195 187 174 -0.0031643771 0.99999088 -0.0028787318 0
0.059214789 -0.19328466 -0.1490951 196 188 175 -0.0047839419 0.99986023 0.016021332 0
0.060533568 -0.19328342 -0.14880836 196 188 175 -0.0051729903 0.99998659 -0.00023162327 0
0.062213194 -0.1932597 -0.1495713 200 192 179 -0.033611927 0.99903667 0.028212331 0
0.063522451 -0.19323455 -0.14895234 196 188 175 0.0056877201 0.99887276 0.047126979 0
0.064211123 -0.19321634 -0.14958009 198 190 177 0.01738265 0.99963135 0.020858942 0
0.06607344 -0.19325727 -0.14991502 197 189 176 0.053210344 0.99782777 -0.038839389 0
0.06705498 -0.19328751 -0.1487518 199 191 178 0.021260668 0.99958253 0.019564975 0
0.068411484 -0.19332828 -0.1489871 196 189 173 0.027198475 0.99943292 -0.019852761 0
0.071218558 -0.1933746 -0.1487532 198 189 172 0.00999525 0.99965537 0.024274226 0
0.071381904 -0.19336641 -0.14945978 197 190 174 0.031408831 0.99950254 0.0028553172 0
0.07309363 -0.19337207 -0.14945494 197 188 171 -0.01555775 0.99982762 0.010130134 0
0.075510763 -0.1933361 -0.14906366 197 188 171 -0.0026227718 0.99990326 0.013661931 0
0.076609187 -0.19333647 -0.14960583 198 189 172 0.0075743613 0.9999426 -0.0075743613 0
0.078236163 -0.19336474 -0.14915842 197 188 171 0.023599355 0.99970931 0.0049524796 0
0.080943763 -0.19343884 -0.14903733 196 187 172 -0.0031756174 0.99965805 0.025955569 0
0.08178585 -0.19343491 -0.14923079 199 190 175 0.020782314 0.9989959 0.039690904 0
0.083364852 -0.19339588 -0.14930998 195 186 171 -0.020021139 0.99964172 0.017765101 0
0.08438921 -0.19337445 -0.14941554 195 187 171 -0.0045118611 0.99995255 -0.0086348951 0
0.085631892 -0.19336949 -0.14973673 195 188 172 0.016725536 0.99944317 -0.028873738 0
0.087298512 -0.19339289 -0.14947465 194 187 171 0.022344269 0.9997282 0.0066531133 0
0.092021756 -0.1932812 -0.14921351 193 185 172 -0.013844668 0.99987113 -0.0081319073 0
0.093306594 -0.19328304 -0.14912678 192 185 169 0.01263145 0.99961889 0.024547838 0
0.094026931 -0.19328219 -0.14955363 190 183 167 0.013075286 0.99964833 0.023070332 0
0.095362492 -0.19330963 -0.14940253 191 184 168 0.028458554 0.99954617 0.0098810885 0
0.10075704 -0.19332853 -0.14959413 191 184 168 -0.080733448 0.99522489 0.054859519 0
0.10227612 -0.19322848 -0.14991064 191 184 168 -0.06443093 0.99754024 0.027607072 0
0.10366619 -0.19323616 -0.14918993 194 187 171 0.053330865 0.99853158 0.0095185218 0
0.10447885 -0.19327325 -0.14943299 192 185 169 0.054116558 0.99781346 0.037945438 0
0.1053825 -0.19332397 -0.14937578 188 181 165 0.051593374 0.99812394 0.032965288 0
0.10667435 -0.19336402 -0.14999485 192 185 169 0.028130081 0.99850023 0.046967521 0
0.10812204 -0.19337673 -0.14959481 193 186 170 -0.019981155 0.99918872 0.034967165 0
0.10898976 -0.19337791 -0.14923438 192 185 169 0.015109543 0.99988586 -0.00011321127 0
0.11004098 -0.19339377 -0.14942372 195 188 172 0.0081987297 0.99892819 -0.04555646 0
0.11464579 -0.19334988 -0.14897789 196 190 174 -0.021726906 0.99975133 -0.0050348705 0
0.11633794 -0.19331907 -0.1494464 196 189 173 -0.0062696449 0.99995619 0.0069521121 0
0.11947584 -0.19333549 -0.14958107 200 194 178 0.0078306962 0.99969393 -0.023466665 0
0.12080795 -0.19334558 -0.14960672 200 194 178 0.031251006 0.99889082 -0.035221439 0
0.12239067 -0.19342943 -0.14993027 205 199 183 0.052692093 0.99793679 -0.036684733 0
0.12294182 -0.19343771 -0.14933231 201 195 182 0.048499774 0.99818355 -0.035739545 0
0.12391737 -0.19346096 -0.14978914 202 196 180 -0.07833723 0.99373859 -0.079667747 0
0.12644517 -0.19351205 -0.14952347 207 199 185 0.040686462 0.99904829 0.015716935 0
0.12822339 -0.19354531 -0.14901298 210 202 189 0.011315165 0.99979663 0.016694473 0
0.1302287 -0.19357628 -0.14908415 209 202 186 0.02460723 0.99965101 0.0096105486 0
0.13441202 -0.19360697 -0.14909109 214 207 191 0.033068281 0.99590468 0.084144853 0
0.13534154 -0.19367042 -0.14908873 214 207 191 0.068379566 0.99643648 0.049382918 0
0.13784607 -0.19374451 -0.14960787 220 213 197 0.0014017151 0.99973887 0.022810424 0
0.13979192 -0.19373116 -0.14903425 222 216 200 -0.036057677 0.99932241 0.0073852711 0
0.14078471 -0.1936921 -0.14933866 220 214 200 -0.039380241 0.99918276 0.0091176284 0
0.141425 -0.19366886 -0.14928973 223 216 200 -0.027100487 0.99962682 0.0034435291 0
0.14298615 -0.19367278 -0.14927903 224 217 201 0.043694001 0.99834877 -0.037290819 0
0.14431453 -0.19374545 -0.1496473 226 219 203 0.032613613 0.99942327 0.0094603663 0
0.19809033 -0.19500828 -0.14826915 208 205 188 0.052946161 0.99852431 -0.012076992 0
0.199154 -0.19503435 -0.14803654 207 203 191 -0.01465406 0.99986237 -0.0077829254 0
0.20080326 -0.19501342 -0.14775366 206 203 187 -0.0061246017 0.99997044 -0.0046483953 0
0.20216042 -0.19500349 -0.14809638 206 202 190 -0.011374802 0.99989241 0.0092643481 0
0.21330033 -0.19515085 -0.14834562 204 201 187 0.13486291 0.98802304 -0.074982315 0
0.21378641 -0.19521788 -0.14821625 206 200 186 0.16729857 0.97776806 -0.12641531 0
0.21581981 -0.19548167 -0.14813088 204 198 184 0.025674041 0.99453503 -0.10119735 0
0.21648958 -0.19549009 -0.14827195 203 197 183 -0.06127103 0.99567175 -0.069882877 0
0.21766186 -0.1954034 -0.14804474 204 198 184 -0.0042739375 0.99988705 0.014407448 0
0.22063515 -0.19548707 -0.1480466 204 198 184 0.12466881 0.99206704 -0.016145967 0
0.22175908 -0.19559784 -0.14866018 205 199 185 0.014417222 0.99626839 0.085096627 0
0.22287019 -0.19553494 -0.14809206 203 197 183 -0.077000618 0.99405354 -0.076996289 0
0.22447833 -0.19546038 -0.14821184 204 198 184 0.01890392 0.98927373 -0.14484499 0
0.2255972 -0.19554216 -0.14794832 202 196 182 0.22760582 0.95411271 -0.19458818 0
0.22806478 -0.19570349 -0.1483365 204 198 184 -0.079583921 0.99010259 0.11559971 0
0.22948618 -0.19541349 -0.14837629 202 196 182 -0.25691852 0.94419187 0.20614193 0
0.23052341 -0.19531564 -0.14833887 203 195 182 0.12003784 0.98526257 0.12185507 0
0.23181467 -0.1956339 -0.14819764 204 196 183 0.19650556 0.97897422 -0.054727554 0
0.23338097 -0.19569248 -0.14800467 206 199 183 -0.015002554 0.99257541 -0.12070224 0
0.23425925 -0.19563933 -0.14803819 205 198 182 -0.0072132656 0.99595118 0.089605354 0
0.23580956 -0.19559644 -0.14824007 204 197 181 0.038190115 0.92935312 0.3672114 0
0.23700663 -0.19575432 -0.1477631 206 199 183 0.007210922 0.96863836 0.24837002 0
0.23796393 -0.19574964 -0.14818349 204 197 181 0.12359849 0.96198767 0.24352257 0
0.23878966 -0.19587621 -0.14801937 204 198 182 -0.035674017 0.98148161 0.18820532 0
0.24065948 -0.19571571 -0.14789942 206 200 184 -0.17595665 0.98424947 -0.017096074 0
0.13694316 -0.19377846 -0.14769131 217 209 196 0.027393546 0.99962473 0 0
0.13809036 -0.19376923 -0.14848003 220 212 199 -0.0088939304 0.99995798 0.0022235159 0
0.14583105 -0.19380482 -0.14764214 226 219 203 0.061340507 0.99755985 -0.03334314 0
0.14687347 -0.19384477 -0.14857976 228 221 205 0.034963138 0.99933714 0.010141904 0
0.14798208 -0.19388065 -0.14796802 225 218 202 0.023985768 0.99920928 0.0317095 0
0.15044284 -0.19393328 -0.14832905 226 220 204 0.080536425 0.99673128 0.0063798334 0
0.15181191 -0.19404878 -0.14756741 227 221 207 0.080536425 0.99673128 0.0063798334 0
0.15288335 -0.19411239 -0.14804937 228 222 206 0.037854239 0.99922788 0.01052442 0
0.1542875 -0.19409691 -0.14796972 225 219 204 -0.047758225 0.99862152 0.021777784 0
0.15577902 -0.19408293 -0.14795414 228 222 208 0.016796907 0.99985254 -0.0035873628 0
0.15746306 -0.1941099 -0.14771278 227 221 205 0.016252412 0.99986237 -0.0033412115 0
0.15818037 -0.19413882 -0.14771768 225 219 203 0.058510128 0.99827647 -0.0045458097 0
0.15982813 -0.19425064 -0.1483348 224 218 202 0.058779325 0.99715298 0.047232263 0
0.16086338 -0.19427174 -0.14825661 225 219 204 -0.006625345 0.99771136 0.067290418 0
0.16313843 -0.19424993 -0.14798819 224 218 206 -0.021793677 0.99875867 0.044791561 0
0.16463278 -0.19423068 -0.14853789 225 219 203 0.0015043829 0.998882 0.04724976 0
0.16546175 -0.19426677 -0.14817992 223 219 203 0.037816118 0.99928403 -0.0011699229 0
0.16700546 -0.19437169 -0.14786074 221 218 201 0.098309882 0.99486142 -0.024206335 0
0.16794445 -0.1944308 -0.14814904 220 217 200 0.034636192 0.99907488 0.025489617 0
0.17048532 -0.19444606 -0.14799911 218 213 197 -0.014583424 0.99790913 0.06296625 0
0.17313045 -0.19446814 -0.14819181 218 215 198 0.034509983 0.99591154 0.083482482 0
0.17417195 -0.19452465 -0.14810908 217 211 197 0.038654137 0.99814463 0.047043737 0
0.17621353 -0.19455864 -0.14847727 216 213 196 -0.044670235 0.99871927 0.023759238 0
0.17786336 -0.19450614 -0.14813569 214 211 194 0.0014032248 0.99995327 0.0095681325 0
0.17912322 -0.1945311 -0.14820905 214 208 192 0.10100744 0.99472731 0.017752403 0
0.18046005 -0.19460018 -0.14803436 214 208 192 0.054113664 0.99767345 -0.041465957 0
0.18364294 -0.19472547 -0.14827155 213 210 193 0.023232436 0.99891263 -0.040421419 0
0.1845364 -0.19473557 -0.14866817 213 210 193 0 0.99991119 -0.013330295 0
0.18598351 -0.19476265 -0.14808856 211 208 192 0.0085629551 0.99970174 0.022871694 0
0.18869424 -0.19470342 -0.14757404 211 207 195 -0.00099977548 0.99992752 0.011997486 0
0.19060379 -0.19471893 -0.14824021 212 209 193 0.040603254 0.99904627 0.016058693 0
0.19231929 -0.19475225 -0.14815687 210 207 192 -0.050416879 0.99571371 0.077539936 0
0.1930469 -0.19472697 -0.14837162 209 206 191 -0.012762083 0.99986863 0.0099973455 0
0.20322151 -0.19497295 -0.14781253 206 203 188 -0.059874844 0.99800658 -0.019945066 0
0.20484741 -0.19488482 -0.14827079 203 200 185 -0.056570485 0.99826008 -0.01663056 0
0.20826469 -0.19487762 -0.1476467 207 204 189 0.030412277 0.99719954 -0.068323977 0
0.20936406 -0.19493459 -0.14822532 206 200 186 0.016339613 0.99820542 -0.057610482 0
0.21148203 -0.19494413 -0.14788666 206 201 187 0.020418711 0.9983837 -0.053038832 0
0.21258277 -0.19498536 -0.14764568 206 200 186 0.079607069 0.99503654 -0.059709009 0
-0.015824774 -0.19350271 -0.1480777 179 175 166 -0.4687286 0.88007766 0.07587374 0
-0.014253203 -0.19326372 -0.14797097 178 174 163 -0.0066937897 0.99806052 0.061889742 0
-0.013433377 -0.19331296 -0.14776367 180 176 164 0.096805632 0.99307209 0.066607259 0
-0.012070672 -0.19335783 -0.14770111 180 176 165 -0.1200421 0.98382568 0.13295461 0
-0.010450943 -0.19307026 -0.14845598 179 175 164 -0.088634215 0.99358034 0.070300274 0
-0.0094064884 -0.19302529 -0.14833318 178 173 164 0.030498646 0.99940085 -0.016359899 0
-0.008184474 -0.19305849 -0.14785971 179 175 164 0.054781284 0.99841958 0.012540839 0
-0.0069536404 -0.19306409 -0.14824884 179 175 164 -0.14829141 0.9815076 0.12104765 0
-0.0058752848 -0.19288372 -0.14835206 178 174 163 -0.033757776 0.99831021 -0.047299206 0
-0.0047679516 -0.19291383 -0.14813636 179 175 163 0.12903838 0.99152589 -0.015020147 0
-0.0031109201 -0.19323146 -0.14786915 178 174 163 0.23801237 0.96727347 -0.08793284 0
-0.00079043861 -0.19347723 -0.14809775 179 175 163 -0.065925077 0.99772251 0.014272207 0
0.00098373496 -0.19337896 -0.14812881 179 175 163 -0.045081947 0.99896044 0.006760288 0
0.0019528239 -0.19330168 -0.14854467 179 175 163 -0.075515404 0.99663633 0.031835873 0
0.005716308 -0.19335702 -0.14853615 181 177 165 0.12401494 0.99212772 -0.017402943 0
0.007176782 -0.19351962 -0.14810586 183 179 167 0.075548783 0.99702644 0.015189591 0
0.0084918216 -0.19352451 -0.14840746 182 178 166 -0.052731864 0.99845076 0.017758256 0
0.0091504697 -0.19351362 -0.14776088 181 177 165 -0.17961958 0.98038059 0.081183448 0
0.01067807 -0.19339862 -0.1476713 187 181 169 -0.022183564 0.99666601 0.078516096 0
0.011634264 -0.1933744 -0.14802304 186 180 168 0.028074998 0.99949145 0.015122518 0
0.013355882 -0.19346271 -0.14808397 186 181 169 0.076879784 0.9969489 -0.013504663 0
0.014582302 -0.19355388 -0.14803065 187 183 169 0.014501445 0.99975926 0.016468253 0
0.015578639 -0.19353992 -0.14849846 187 181 167 0.039852388 0.99025357 0.13345277 0
0.016924173 -0.19363891 -0.14828159 188 182 168 0.04785851 0.99878758 0.011532535 0
0.018303454 -0.19363596 -0.14756826 190 184 172 -0.011376671 0.99993348 0.0019078917 0
0.019251263 -0.19353791 -0.14824438 190 184 170 -0.12989736 0.99047726 0.045623086 0
0.02057863 -0.19348072 -0.14788929 187 182 169 -0.024368457 0.9996658 0.008630015 0
0.022495635 -0.19346979 -0.14868085 189 183 171 -0.040791575 0.99347448 -0.10651071 0
0.022922512 -0.19347179 -0.14797947 188 182 170 -0.01576627 0.9996962 0.018943213 0
0.024438718 -0.19350331 -0.14769898 191 185 173 0.010520472 0.99984801 0.013906181 0
0.025309786 -0.19349948 -0.14830485 190 184 172 0.029854026 0.99730355 0.067039892 0
0.026635688 -0.19346821 -0.14859362 190 184 172 -0.039557334 0.99914122 -0.012333375 0
0.027845686 -0.1934263 -0.14858526 191 185 171 -0.0055807116 0.99997938 0.0031889607 0
0.029425466 -0.19342852 -0.14851789 191 185 171 -0.033369116 0.99908596 -0.026716273 0
0.030552635 -0.19347686 -0.14870793 192 186 174 0.052740637 0.99850309 0.014492875 0
0.031737424 -0.1934139 -0.14809737 191 185 173 0.0021048554 0.99814457 -0.060852032 0
0.032816377 -0.19340214 -0.14815061 190 184 171 -0.017766969 0.9994055 -0.029547857 0
0.034390949 -0.19338413 -0.14827546 193 187 174 -0.0031706337 0.99997795 -0.005840282 0
0.037313987 -0.19345041 -0.14847545 191 185 171 0.025424933 0.99967653 -0.00064492511 0
0.037593257 -0.19345815 -0.14803828 191 185 171 0.03115675 0.99951178 0.0023635589 0
0.03895992 -0.19347276 -0.1480033 192 186 174 -0.0016165647 0.99960381 0.028100619 0
0.040685777 -0.19343941 -0.14799541 191 185 172 -0.030638307 0.99932605 0.020217167 0
0.041720245 -0.19337215 -0.14756332 192 186 172 -0.11003272 0.9939273 -0.0011603691 0
0.042668227 -0.19329743 -0.14851619 192 186 172 -0.059983321 0.99815297 -0.0096263085 0
0.043956738 -0.1932421 -0.14862849 191 184 172 -0.02659435 0.99911577 -0.03256448 0
0.045838848 -0.1932403 -0.14858097 191 184 171 0.016953386 0.99945462 -0.028338712 0
0.04713922 -0.19323821 -0.14787926 193 187 173 0.012771117 0.99960625 -0.024986805 0
0.049370278 -0.19326368 -0.14822881 193 185 172 -0.018988118 0.99950755 -0.024984337 0
0.052083801 -0.1932186 -0.14862335 196 188 175 -0.016710075 0.99977148 -0.013335142 0
0.053362556 -0.1932174 -0.14828295 195 187 174 0.011937283 0.9998399 -0.013336055 0
0.053922251 -0.19323012 -0.1486695 195 187 174 0.015992049 0.99963558 -0.0217491 0
0.055853445 -0.19324569 -0.14796385 196 188 175 0.017175283 0.99959904 -0.022512712 0
0.059305631 -0.19329457 -0.14826153 198 190 177 0.016756035 0.99974346 0.01524348 0
0.060188714 -0.19331959 -0.14757237 198 188 176 -0.0089064725 0.99912411 0.040886164 0
0.062853582 -0.19328323 -0.14804772 197 188 174 0.0113125 0.99975139 0.019214837 0
0.0646355 -0.19332375 -0.1475109 195 187 174 0.0078505157 0.99785131 0.065047346 0
0.065435655 -0.19331653 -0.14770062 200 191 176 -0.0014695884 0.99836802 0.057088859 0
0.067189932 -0.19329806 -0.14846522 196 188 175 0.022447279 0.99902594 0.037992146 0
0.068040669 -0.19331704 -0.14792448 194 187 171 -0.015041083 0.9998281 0.010843989 0
0.070765302 -0.19336607 -0.14813522 196 186 174 0.012404317 0.9998914 -0.0079609035 0
0.074106321 -0.19335037 -0.14809696 196 187 170 -0.00071512762 0.99988508 -0.015143238 0
0.075785272 -0.19333822 -0.14808664 195 186 170 -0.01772307 0.99983561 0.0038298718 0
0.076896623 -0.19334134 -0.14804301 195 186 171 0.018042471 0.99981946 -0.0059672748 0
0.080271058 -0.19342633 -0.14820303 198 189 174 0.030694287 0.99948651 0.0091997813 0
0.08217629 -0.19346204 -0.14786032 197 188 173 0.024691714 0.99957836 -0.015279234 0
0.083431035 -0.1934167 -0.14824167 196 187 172 -0.05818022 0.9980647 0.021952821 0
0.084489509 -0.1933803 -0.14810309 198 191 175 -0.011270154 0.99992138 -0.0055010472 0
0.086161636 -0.19336674 -0.14863008 197 190 174 0.024273742 0.99970531 0.00035075512 0
0.087270483 -0.19339131 -0.14813459 195 187 172 -0.0018107143 0.99992609 -0.012020592 0
0.089077547 -0.19334894 -0.14851555 193 186 170 -0.046486538 0.99880832 -0.014863285 0
0.090866394 -0.19329101 -0.14802936 194 187 171 -0.021381609 0.99975461 -0.0058002989 0
0.092001081 -0.19328783 -0.14798875 193 186 170 0.017948898 0.99955893 0.023660012 0
0.093052514 -0.19330889 -0.14786051 193 185 172 0.017015612 0.99972445 0.016173776 0
0.093816809 -0.19331256 -0.14818779 194 187 171 0.019030413 0.99886107 0.043754719 0
0.096702032 -0.19334306 -0.14818154 192 185 169 0.0054929298 0.99980432 0.019004289 0
0.097935945 -0.19334868 -0.14837804 189 182 166 0.013747726 0.99979913 0.014585434 0
0.099528797 -0.19338049 -0.14859959 192 185 169 0.022899549 0.9995929 0.017017907 0
0.10019755 -0.19339542 -0.1475091 192 185 169 0.013266333 0.99991173 -0.000793332 0
0.10169511 -0.19331555 -0.14807373 192 185 169 -0.078909077 0.99649131 0.027900903 0
0.10545892 -0.19335021 -0.14770611 194 187 171 0.042145368 0.99873674 -0.027363297 0
0.10662661 -0.19339699 -0.14826849 191 184 168 0.043464616 0.99904114 0.0052624969 0
0.1081601 -0.19337772 -0.14810188 191 184 168 -0.039657321 0.99920452 0.0042026453 0
0.1093592 -0.19334263 -0.14780955 194 187 171 -0.019357879 0.99977916 -0.0081782816 0
0.1110901 -0.19334434 -0.14796641 193 186 170 0.0077995672 0.99929196 -0.036806788 0
0.11156145 -0.19335268 -0.14809299 193 186 170 0.0077995672 0.99929196 -0.036806788 0
0.11308435 -0.19337824 -0.14801911 193 187 171 0.020139381 0.99961698 -0.018983692 0
0.11628135 -0.19335756 -0.14764184 198 191 175 0.0051677912 0.99942589 0.033484779 0
0.11840176 -0.19333279 -0.14775215 199 192 176 -0.014103744 0.99969029 0.020505251 0
0.11907545 -0.19332543 -0.14823015 200 193 177 0.00011603333 0.99996334 0.0085655218 0
0.12022018 -0.19333479 -0.14829157 200 193 178 0.00023605306 0.9995842 0.02883509 0
0.12177148 -0.19334951 -0.14770922 203 197 183 0.061298959 0.99798793 0.016203014 0
0.12341054 -0.19343987 -0.14814961 201 195 182 0.031180102 0.99945325 0.010998591 0
0.12477031 -0.19348037 -0.14793803 203 197 185 0.024602236 0.99894238 0.038845036 0
0.12785721 -0.19354777 -0.14808279 206 198 186 0.011824331 0.99984235 -0.013249061 0
0.12940863 -0.19357149 -0.14813441 210 203 187 0.020375462 0.99955237 0.021907553 0
0.1308835 -0.1936391 -0.14752185 209 201 188 0.039965704 0.9982028 0.044653427 0
0.13157791 -0.19359896 -0.14872037 211 204 188 0.021458173 0.99845916 0.051175535 0
0.13357344 -0.19363908 -0.14850064 213 206 190 -0.016513102 0.99767953 0.066053107 0
0.13966997 -0.19373973 -0.14852063 220 212 199 -0.03681073 0.99927986 0.0092028193 0
0.14166477 -0.19366466 -0.14820105 222 215 199 -0.0069322572 0.99997473 -0.0015997372 0
0.14320189 -0.19365266 -0.148286 226 219 203 -0.0088873608 0.99996054 0 0
0.1445491 -0.19374299 -0.1483559 224 217 201 0.095618486 0.99390936 -0.054785088 0
0.20276318 -0.19500798 -0.14655137 205 202 187 0.011434538 0.99991328 0.0065340078 0
0.21445255 -0.19517693 -0.14717826 206 200 186 0.16916251 0.964275 -0.20385723 0
0.21562891 -0.19527104 -0.14671661 205 199 185 0.12328605 0.9802866 -0.15439828 0
0.2164166 -0.19534394 -0.14711136 205 199 185 0.0021582444 0.98833221 -0.15229832 0
0.21791595 -0.19545719 -0.14700057 200 194 180 0.088822924 0.99451685 0.055196885 0
0.21875663 -0.19548717 -0.14718691 204 198 184 -0.02945349 0.98855388 0.14796534 0
0.22055142 -0.19549692 -0.14688213 202 196 182 0.031757314 0.99828631 0.04915116 0
0.22204167 -0.1955566 -0.14672975 202 196 182 -0.042339761 0.99855077 0.033221353 0
0.22401486 -0.19534813 -0.14692642 203 197 183 -0.068477146 0.99627221 -0.052465331 0
0.22536616 -0.19531572 -0.14670563 202 196 182 0.057700571 0.99148858 -0.11670943 0
0.22684002 -0.19557698 -0.14692105 203 197 182 0.14770144 0.97813088 -0.14643864 0
0.22774751 -0.19566528 -0.14682296 203 197 183 0.0089290971 0.99350417 -0.11344472 0
0.22957389 -0.19559164 -0.14715442 201 195 180 -0.056697644 0.99804497 -0.026300097 0
0.23033769 -0.19556496 -0.14712417 204 196 183 0.0096134655 0.97876143 0.20477714 0
0.23170573 -0.19546521 -0.14670692 205 197 183 -0.11297878 0.97747052 -0.17828938 0
0.23324274 -0.19537491 -0.14716081 203 196 180 -0.09137819 0.87394881 -0.47735041 0
0.23452848 -0.19545609 -0.14702314 204 197 181 0.17245166 0.92461801 -0.33962023 0
0.23541945 -0.19553524 -0.14681844 205 198 182 0.18456925 0.96285224 -0.19710317 0
0.2367992 -0.1957653 -0.14697593 204 197 181 -0.014067993 0.99365407 -0.11159652 0
0.238084 -0.19574983 -0.14675216 204 197 181 0.083459809 0.98315471 -0.16260794 0
0.23924215 -0.19590826 -0.14709817 204 197 181 0.024146205 0.99875683 -0.043609228 0
0.24072479 -0.19548842 -0.14688639 204 198 182 -0.60741937 0.7695998 -0.19687028 0
0.13482499 -0.19376002 -0.14697939 214 207 191 3.7754758e-10 0.9997918 0.020408724 0
0.13525683 -0.19375478 -0.147236 217 209 196 3.7754758e-10 0.9997918 0.020408724 0
0.13722134 -0.19377823 -0.14663513 220 212 199 -0.0080046067 0.99996799 1.3322156e-10 0
0.13771401 -0.19377428 -0.14680314 218 210 197 -0.0080046067 0.99996799 1.3322156e-10 0
0.14724493 -0.19386807 -0.14721897 225 218 202 0.035241131 0.99935168 0.007367379 0
0.14982878 -0.19395213 -0.14644362 225 219 205 0.032700162 0.99943346 0.0079729175 0
0.15060484 -0.19397572 -0.14658661 228 222 208 0.023220835 0.99956179 0.01835735 0
0.15178691 -0.1940401 -0.14668129 227 221 205 0.061171781 0.99807411 -0.010303017 0
0.15370756 -0.19414949 -0.14646423 229 223 207 0.052890327 0.99855655 -0.009353322 0
0.15470041 -0.19413233 -0.14705965 227 221 205 -0.023169516 0.99681288 0.076336138 0
0.15594843 -0.1940867 -0.14713898 226 220 204 0.011824974 0.99990988 0.0063582244 0
0.15648158 -0.19411065 -0.14635085 226 220 204 -0.063293554 0.99467134 0.081381075 0
0.15838939 -0.19414699 -0.14669631 226 220 204 0.041817553 0.9984464 -0.036825679 0
0.15995073 -0.19423389 -0.1468869 223 217 201 0.059055179 0.99750429 -0.038699824 0
0.16271856 -0.19431372 -0.1466274 226 220 204 -0.021807235 0.99938005 0.027640952 0
0.166116 -0.19429898 -0.1466838 222 216 200 0.011128685 0.99960089 0.025966637 0
0.16705261 -0.19435033 -0.14650202 222 219 202 0.089262016 0.99594551 -0.011179523 0
0.17096996 -0.19448751 -0.1469779 217 215 197 -0.0153366 0.99934316 0.032834541 0
0.1722777 -0.19450335 -0.14740095 219 213 197 0.031837519 0.99642128 0.078300603 0
0.17292717 -0.19452858 -0.14714187 218 215 198 0.021000165 0.99967259 -0.01461957 0
0.1745239 -0.19452214 -0.14691241 220 214 200 0.0039051489 0.99622923 -0.086672477 0
0.17562734 -0.19453092 -0.14681733 218 215 200 0.010607034 0.99577963 -0.091161601 0
0.17656924 -0.19453797 -0.14679882 214 211 194 -0.061089043 0.99748152 -0.036038741 0
0.17838128 -0.1944643 -0.14635865 215 213 196 -0.0042759296 0.99954367 -0.029903509 0
0.17979147 -0.19451809 -0.14686266 213 210 193 0.052229218 0.99614018 -0.070547312 0
0.18033637 -0.19457272 -0.14745289 216 210 194 0.043397713 0.99854183 -0.032107726 0
0.18198505 -0.19464195 -0.14682889 214 211 194 0.065316297 0.99717134 -0.037190333 0
0.18335749 -0.19467722 -0.14679539 214 211 194 0.018169185 0.99952757 -0.024790572 0
0.18547718 -0.19477201 -0.14698423 213 210 193 0.042080071 0.99841273 0.0374345 0
0.18728973 -0.19479266 -0.14672977 211 208 191 -0.041909274 0.99847257 0.03600217 0
0.18939649 -0.19471829 -0.14705285 210 207 192 0.0067150565 0.99952859 0.029957877 0
0.19125247 -0.19478673 -0.14683047 211 208 193 0.034126498 0.99907005 0.026351934 0
0.19313854 -0.19480765 -0.14679751 209 206 189 -0.045455314 0.99756658 0.052865047 0
0.19446042 -0.19477932 -0.1466772 209 206 190 0.0066580107 0.99917871 0.039969232 0
0.19568293 -0.19480398 -0.14707834 206 203 186 0.067429066 0.99766767 -0.010604256 0
0.19707453 -0.19489305 -0.1470767 207 203 191 0.06081821 0.99705297 -0.046761084 0
0.19842291 -0.19498681 -0.14731012 207 203 191 0.061748054 0.99695617 -0.04759872 0
0.19899933 -0.19497836 -0.14642225 208 204 192 0.028203798 0.99865639 -0.043473762 0
0.2034792 -0.19496894 -0.14723684 206 203 188 -0.072238199 0.99648774 0.042354681 0
0.2058481 -0.19481789 -0.14678471 207 204 189 -0.045657318 0.99894047 0.0057785665 0
0.20658188 -0.19480729 -0.14689852 205 202 187 -0.0022150078 0.99891132 -0.046596777 0
0.20878227 -0.19487874 -0.1472507 206 200 186 0.053921375 0.9985432 0.001989712 0
0.21078584 -0.19492012 -0.14711377 202 196 182 -0.0099922409 0.99927872 0.036635276 0
0.21192324 -0.19493878 -0.14628814 205 199 185 0.0059491005 0.99059457 0.13670059 0
0.21331152 -0.19497238 -0.14627297 204 198 184 0.053221222 0.99802864 -0.033263326 0
-0.016254362 -0.19363132 -0.14739649 180 176 165 -0.63787895 0.72968781 -0.24630517 0
-0.015623163 -0.19329107 -0.14684451 180 176 165 -0.17910486 0.96756524 -0.17815427 0
-0.013194154 -0.19334535 -0.14696488 179 175 165 0.11187866 0.99307549 -0.035835546 0
-0.012076892 -0.1933971 -0.1467423 180 176 164 -0.17876586 0.98100179 -0.075354047 0
-0.010493858 -0.19322695 -0.14639911 178 174 163 -0.095762737 0.99484521 0.033355601 0
-0.0078095328 -0.19310245 -0.14704372 179 175 163 -0.0058299643 0.99542797 0.09533684 0
-0.0074593369 -0.1931714 -0.14638241 179 175 163 0.076962724 0.99561882 0.053102706 0
-0.0057494678 -0.19318461 -0.14654894 178 174 163 -0.080159329 0.97231597 0.21949068 0
-0.0049524675 -0.19314232 -0.14663413 176 172 160 -0.031226749 0.96317363 0.26706073 0
-0.0032067765 -0.1931213 -0.14683636 179 175 163 0.098663703 0.99511862 0.0021213479 0
-0.001870946 -0.19340308 -0.14684628 178 174 162 0.19419909 0.97275507 -0.12662704 0
-0.00076577766 -0.19349891 -0.14687233 179 175 163 0.047010146 0.99889189 -0.002257491 0
0.0006501149 -0.19353169 -0.14676149 178 174 162 -0.022121992 0.99276376 0.11802865 0
0.002036565 -0.19345073 -0.14671654 178 174 163 -0.1271342 0.98303556 0.13220412 0
0.004321937 -0.1932189 -0.1470968 180 176 164 -0.0023622827 0.99978489 0.020605911 0
0.0059414101 -0.19334359 -0.14695163 181 177 165 0.1467137 0.98645902 -0.073306128 0
0.00717325 -0.19349819 -0.14685586 182 178 166 0.063083231 0.99634832 -0.057536751 0
0.0079930406 -0.19356582 -0.1469523 184 180 168 0.066558734 0.99770874 -0.012128571 0
0.0095112752 -0.19354279 -0.14705235 184 180 168 -0.089794517 0.98693973 0.13374178 0
0.010185504 -0.19352733 -0.14671384 186 182 170 -0.089353092 0.98729491 0.13139555 0
0.01216811 -0.19343628 -0.14688705 185 181 169 -0.014514706 0.99666619 0.08028584 0
0.014310747 -0.19349039 -0.14646983 188 182 170 0.0096049095 0.99862885 -0.051460683 0
0.015699036 -0.19359212 -0.14743546 188 182 168 0.074471705 0.99613321 -0.046611831 0
0.017009983 -0.19363245 -0.14670686 191 185 173 0.01590479 0.99960864 -0.02301343 0
0.018117914 -0.19363822 -0.14749154 188 182 170 -0.011535276 0.99993104 0.0022080459 0
0.019555135 -0.19357353 -0.14672552 191 184 172 -0.070025183 0.99689758 0.035938777 0
0.020795431 -0.19351541 -0.14651658 190 184 172 0.032038376 0.99860054 0.04207699 0
0.022119656 -0.19351861 -0.14669073 191 184 173 -0.038981259 0.99897712 0.022918267 0
0.023456061 -0.19345365 -0.14629979 192 186 174 -0.025089521 0.99815112 -0.055361874 0
0.025727237 -0.19348578 -0.14713454 191 183 172 0.017901339 0.99652874 -0.081302591 0
0.02668247 -0.19350183 -0.14738744 192 185 174 -0.03508513 0.99780911 0.056089807 0
0.029408025 -0.19343597 -0.14689855 191 185 173 -0.032739051 0.99833769 0.047435291 0
0.031348415 -0.19337946 -0.14663054 193 186 175 -0.045664094 0.99780828 0.047889464 0
0.033524353 -0.19336751 -0.14649998 195 189 173 0.024541369 0.9977144 0.062957697 0
0.033974983 -0.19335535 -0.14708747 191 185 171 -0.01715528 0.99912614 -0.038114399 0
0.036248885 -0.19341421 -0.14739287 191 185 171 0.058777995 0.99697256 -0.050901465 0
0.037179567 -0.19345734 -0.1466293 191 185 170 0.038747147 0.9990778 0.018497054 0
0.039993122 -0.19347581 -0.14683181 193 187 175 -0.018619331 0.99971718 -0.0147962 0
0.04203124 -0.19333501 -0.14724401 192 186 174 -0.12130984 0.9920184 -0.034400377 0
0.043644905 -0.19324125 -0.14674972 194 188 172 -0.055716276 0.9983815 0.011408521 0
0.044843815 -0.19321336 -0.14730415 192 186 172 0.0072714281 0.99995416 -0.0062326239 0
0.046566989 -0.1932278 -0.14723083 195 187 174 0.019829022 0.99979967 0.0027388306 0
0.047742672 -0.19324473 -0.14641643 193 185 172 0.0010148876 0.99994659 0.01028613 0
0.050225966 -0.1932292 -0.14697267 195 186 173 -0.014286551 0.99989241 -0.0033253478 0
0.053214047 -0.19320011 -0.14711912 194 186 173 0.011937283 0.9998399 -0.013336055 0
0.05384133 -0.19321087 -0.14645122 198 190 177 0.014224681 0.99989355 0.0032653161 0
0.055662096 -0.19324091 -0.14676759 196 186 174 0.027605223 0.99944061 0.018882027 0
0.057419911 -0.19327813 -0.14705516 198 190 177 0.022972794 0.99955422 0.019069595 0
0.058714092 -0.19330303 -0.14661621 198 188 176 0.015764751 0.999874 0.0018590518 0
0.059102364 -0.19330923 -0.14657398 199 189 177 0.015764751 0.999874 0.0018590518 0
0.063121989 -0.19331242 -0.1471488 197 188 173 0.007777472 0.99935806 0.034971591 0
0.066681132 -0.19335437 -0.14661042 200 191 176 -0.012612437 0.99970973 0.020526931 0
0.069930725 -0.19333521 -0.14647287 197 189 176 0.014353985 0.99989629 -0.0011621576 0
0.070322074 -0.19334447 -0.1468121 196 187 172 0.027456582 0.99949312 -0.016114239 0
0.072183177 -0.19336644 -0.14673811 195 186 171 -0.02204366 0.99975502 -0.0019935041 0
0.07305558 -0.19334641 -0.14677589 195 186 171 -0.023476951 0.99971497 -0.0043402943 0
0.074384548 -0.19332908 -0.14632156 196 187 172 0.0051149218 0.9998762 -0.014879958 0
0.075214066 -0.19334023 -0.14679925 196 187 170 0.0026018601 0.99996799 -0.0075691417 0
0.07790526 -0.19335489 -0.14654897 198 189 174 0.018018423 0.99963987 0.019890146 0
0.080602892 -0.19344728 -0.14669165 198 189 174 0.0062046163 0.99997181 -0.0042319135 0
0.081836611 -0.19344102 -0.14663169 201 192 177 -0.005685539 0.99998242 0.0016871815 0
0.082576446 -0.19342746 -0.14724295 196 189 173 -0.0419208 0.99885505 -0.023048734 0
0.085187837 -0.19337118 -0.14647807 192 185 169 -0.0031660062 0.9999274 0.011629998 0
0.086383022 -0.19337818 -0.14723378 200 193 177 0.016827714 0.99983549 0.0067697717 0
0.093270369 -0.1933291 -0.14690579 193 186 170 0.026794016 0.99959868 0.0091977213 0
0.094152898 -0.19335078 -0.14652079 195 188 172 0.018022876 0.99983746 0.00056327786 0
0.096817061 -0.19336003 -0.14672266 194 187 171 0.005496542 0.9999584 0.0072836829 0
0.099089488 -0.19338994 -0.14689593 191 184 168 0.0097817713 0.99990171 0.010049329 0
0.10105869 -0.19338065 -0.1463569 192 185 169 -0.065172881 0.99771786 -0.017652411 0
0.10426234 -0.19329402 -0.14703116 192 185 169 0.024599692 0.99938393 0.025033152 0
0.1061207 -0.19334808 -0.14653128 192 185 169 0.016233062 0.99984479 -0.0068482049 0
0.10703656 -0.19337328 -0.14643998 193 186 170 0.034930512 0.9981432 -0.049900837 0
0.10776223 -0.1933822 -0.14690861 191 184 168 -0.021231676 0.99971062 -0.011310992 0
0.11101239 -0.19331744 -0.14724408 193 186 170 -0.0055472562 0.9996686 -0.025139647 0
0.11141101 -0.19332035 -0.14662696 195 188 172 -0.012180264 0.99938053 0.033018198 0
0.11268619 -0.19334593 -0.14636515 193 186 170 0.018902736 0.99972564 0.013837891 0
0.11400527 -0.19337799 -0.14738892 195 189 173 0.011771752 0.99976569 -0.018167261 0
0.11565712 -0.19336531 -0.14741245 197 190 174 0.0088059539 0.99810523 0.060895864 0
0.11703328 -0.19342346 -0.14694205 196 189 173 -0.029016893 0.99957508 0.0027871286 0
0.1177376 -0.19339295 -0.14700799 200 193 177 -0.063564122 0.99797219 0.0033419346 0
0.11988066 -0.19335985 -0.14694843 199 191 178 0.023059288 0.99970031 0.0082144262 0
0.12123 -0.19336234 -0.1473788 199 191 178 0.0079551227 0.99977136 0.019847514 0
0.12238505 -0.19339594 -0.14631195 203 195 182 0.091488034 0.99524784 -0.033341926 0
0.1244667 -0.19349119 -0.14737014 202 196 184 0.026117381 0.9991774 0.031024368 0
0.12531674 -0.19351999 -0.14640826 203 195 182 0 1 0 0
0.127101 -0.19351409 -0.1469547 205 197 184 -0.0054867249 0.99998355 0.0016882406 0
0.12826042 -0.19354801 -0.14667042 206 198 185 0.059647027 0.99735838 0.041456062 0
0.12901425 -0.19360512 -0.14712858 211 203 192 -0.0084303571 0.99902415 0.043355949 0
0.13124625 -0.19365487 -0.14739096 209 202 186 0.022859374 0.99868953 0.045789905 0
0.13286531 -0.19370341 -0.14713402 211 204 188 0.022507641 0.99873638 0.044934254 0
0.13445905 -0.1937397 -0.14724185 213 206 190 0.028910425 0.9986524 0.043100543 0
0.14097449 -0.19371082 -0.14662927 223 215 202 -0.042148698 0.9988693 0.021991907 0
0.1423786 -0.19369155 -0.14633514 224 216 203 0.0052041737 0.99745429 0.071118772 0
0.14446639 -0.19371106 -0.14662841 225 218 202 0.049243063 0.99814081 0.035916537 0
0.14529267 -0.19374561 -0.146992 225 218 202 0.053257205 0.99858087 0 0
0.20297635 -0.19502641 -0.14545777 205 202 187 0.011431798 0.99967366 0.022843959 0
0.2132958 -0.19501919 -0.14566618 204 198 183 0.0034705445 0.99347353 0.11400985 0
0.21421574 -0.19502664 -0.14550824 203 197 183 0.034316424 0.99938148 -0.0076774321 0
0.2156765 -0.19514628 -0.14554802 203 197 183 0.11262924 0.99188989 -0.058899656 0
0.2165999 -0.19527559 -0.14575434 202 196 182 0.15016644 0.98732126 -0.051446781 0
0.21826188 -0.19551659 -0.14582646 204 198 184 0.080868356 0.99671298 -0.0048542349 0
0.2193196 -0.19550569 -0.14560474 202 196 182 -0.051858176 0.99825835 -0.028124813 0
0.22090878 -0.19545701 -0.14571378 202 196 182 0.027267417 0.99961621 -0.0049030297 0
0.22163852 -0.1955152 -0.14570887 201 195 181 0.099276632 0.99394655 -0.047058322 0
0.22336072 -0.19544578 -0.14571868 202 196 182 -0.18029168 0.97813183 0.10369622 0
0.2244281 -0.19527327 -0.14555772 202 196 182 -0.07969173 0.99656177 -0.022669164 0
0.22567327 -0.19523384 -0.1457527 202 196 182 0.0371258 0.9945249 -0.097682938 0
0.22698548 -0.19536002 -0.14559188 202 196 182 0.16542648 0.96956468 -0.18049492 0
0.227762 -0.19546655 -0.14564514 202 196 182 0.038250692 0.98142409 -0.18799904 0
0.2293088 -0.19547494 -0.1459211 202 196 181 -0.046245951 0.97956896 -0.19571912 0
0.23079424 -0.19542925 -0.1456012 203 195 182 -0.13876201 0.95872486 -0.24817689 0
0.23174286 -0.19531426 -0.14605558 203 195 182 -0.31772679 0.90585041 -0.28015125 0
0.23450799 -0.19505581 -0.14544156 199 191 178 0.18063486 0.9553895 0.23367074 0
0.23548901 -0.19531789 -0.14560647 203 195 180 0.25896537 0.96406221 -0.059338473 0
0.23677246 -0.19551921 -0.14562553 204 196 181 0.056675617 0.95431662 -0.29337284 0
0.23819506 -0.19554935 -0.1454154 204 197 180 0.085131958 0.98721361 -0.1347658 0
0.2392711 -0.19566098 -0.14547768 203 196 180 0.022672966 0.98929274 -0.14417279 0
0.240409 -0.19563647 -0.14549306 204 197 184 -0.21285389 0.97473431 -0.067722373 0
0.13207212 -0.19375223 -0.14510848 208 201 185 0.02690622 0.99927187 0.027051913 0
0.13283291 -0.19376822 -0.14527453 208 201 185 0.02690622 0.99927187 0.027051913 0
0.13387801 -0.19378558 -0.14557427 210 202 189 0.022156013 0.99956542 0.019446861 0
0.13563366 -0.19379562 -0.14547922 216 209 193 0 0.99955046 0.029982494 0
0.13710997 -0.19378382 -0.14593755 217 209 196 0.019528128 0.99899358 0.040379319 0
0.13799562 -0.19381204 -0.14550945 217 207 195 0.0022663877 0.99873531 0.05022686 0
0.13974884 -0.19381741 -0.1454199 220 211 196 -0.046068914 0.99798983 0.043519646 0
0.14170279 -0.19375972 -0.14506036 221 214 198 -0.038905565 0.99551141 0.086275548 0
0.14297046 -0.19375321 -0.14539041 223 216 200 0.039937478 0.99840397 0.039930921 0
0.14470412 -0.19379367 -0.14526592 227 220 204 0.023949504 0.99753141 0.066011965 0
0.14589769 -0.19383074 -0.14567325 227 220 204 0.061159536 0.99698049 0.047848504 0
0.14779259 -0.19388731 -0.14586923 227 220 204 0.032191671 0.99922979 0.022441579 0
0.15052891 -0.19397672 -0.14624698 229 222 206 0.033979919 0.99936426 0.010792771 0
0.15207937 -0.19404007 -0.14557546 226 220 204 0.06219428 0.99789131 -0.018570356 0
0.15316887 -0.19411895 -0.14598726 227 221 205 0.060532164 0.99812937 0.008581114 0
0.15796345 -0.19411002 -0.14571609 229 223 207 -0.011246257 0.99980485 0.016244527 0
0.1594514 -0.19418277 -0.14604591 225 219 203 0.082426064 0.99602687 -0.033712 0
0.16050009 -0.1942558 -0.14567557 227 221 207 0.062226608 0.99802202 -0.008944937 0
0.16201794 -0.19435543 -0.14551651 224 219 204 0.066757269 0.99704754 0.037941899 0
0.16273454 -0.19433625 -0.14601912 223 217 201 0.00078425661 0.99764532 0.068580084 0
0.16411662 -0.19436689 -0.14561088 223 218 203 -0.03850105 0.99495196 0.09267278 0
0.16527796 -0.19432066 -0.14577836 224 221 204 0.0068436335 0.99933928 0.035695314 0
0.16819116 -0.194453 -0.14552152 220 217 200 0.050992273 0.99852842 0.018461961 0
0.16941214 -0.19449688 -0.14590268 218 215 198 0.047606286 0.99850464 -0.026872402 0
0.17123261 -0.19449407 -0.14566183 217 214 199 -0.040190518 0.99917418 0.0059730825 0
0.17179205 -0.19449288 -0.14613916 218 215 198 0.017020136 0.99981546 -0.0089096176 0
0.17322703 -0.19449544 -0.14548627 219 215 199 -0.057073649 0.99701691 -0.051960073 0
0.17542881 -0.19439393 -0.14540884 218 214 202 -0.024012232 0.99734473 -0.068752393 0
0.17645638 -0.1943533 -0.14504564 218 215 198 0.0089437235 0.99934202 -0.035151295 0
0.1782206 -0.19442026 -0.14570525 216 213 196 0.026860978 0.99745804 -0.065999456 0
0.18035385 -0.19452444 -0.14592719 214 211 194 0.097989634 0.99500561 0.01902337 0
0.18156855 -0.19457562 -0.14578041 213 210 193 0.047971271 0.99853224 -0.025140828 0
0.18301071 -0.1946812 -0.1457615 213 210 193 0.059948582 0.9974888 0.037713777 0
0.18470591 -0.19478583 -0.14569888 213 210 193 0.05918939 0.99747002 0.039372474 0
0.18549159 -0.19482297 -0.14567402 212 209 192 0.01477969 0.9997201 0.018474557 0
0.18686143 -0.19483489 -0.14587995 212 209 192 -0.041304644 0.99883169 0.025083136 0
0.18834618 -0.19479024 -0.14504234 212 209 192 -0.035390157 0.99927062 0.014343364 0
0.18890762 -0.19475868 -0.14558576 214 211 194 -0.045665272 0.99846369 0.031383082 0
0.19225264 -0.19483109 -0.14517663 208 205 188 0.036136795 0.99924535 -0.014240471 0
0.19285001 -0.19484311 -0.14542243 208 205 188 0.010767198 0.99994087 0.0015382366 0
0.19410434 -0.19481859 -0.1455037 207 204 187 -0.051922306 0.99864316 -0.0039937398 0
0.19507468 -0.19482097 -0.14548942 208 205 190 0.031408563 0.99949032 0.0057104859 0
